# .PCD v0.7 - Point Cloud Data file format
VERSION 0.7
FIELDS x y z
SIZE 4 4 4
TYPE F F F
COUNT 1 1 1
WIDTH 959
HEIGHT 1
VIEWPOINT 0 0 0 1 0 0 0
POINTS 959
DATA ascii
-1.65 2.0206662e-16 2.0206669e-19
-27.299999 3.3432841e-15 3.3432852e-18
-19.573643 1.7610722 0.0017610728
-19.723072 1.7741276 0.0017741282
-22.263395 1.99607 0.0019960706
-12.993002 2.4124718 0.0024124724
-13.288397 2.4648354 0.0024648362
-13.583792 2.5171993 0.0025172001
-13.731489 2.5433812 0.0025433821
-13.879186 2.5695632 0.0025695639
-14.617673 2.7004726 0.0027004736
-14.913068 2.7528365 0.0027528375
-15.060765 2.7790184 0.0027790193
-15.208462 2.8052003 0.0028052011
-15.799252 2.9099278 0.0029099288
-15.946949 2.9361098 0.0029361108
-17.423922 3.1979289 0.0031979298
-19.491686 3.5644755 0.0035644767
-20.377869 3.7215669 0.0037215683
-20.525566 3.7477489 0.0037477501
-20.673264 3.7739308 0.0037739321
-7.9555616 2.3207688 0.0023207697
-10.271838 2.9491487 0.0029491496
-10.416606 2.9884224 0.0029884232
-10.706141 3.0669696 0.0030669707
-10.995675 3.1455171 0.0031455182
-11.140442 3.1847908 0.0031847919
-11.28521 3.2240646 0.0032240658
-11.719511 3.3418858 0.0033418869
-12.443348 3.5382545 0.0035382556
-12.588116 3.5775282 0.0035775295
-12.732882 3.616802 0.0036168031
-13.167185 3.7346232 0.0037346245
-14.325323 4.0488129 0.0040488145
-14.47009 4.0880866 0.0040880879
-14.614858 4.1273603 0.0041273618
-14.759624 4.1666341 0.0041666357
-14.904392 4.2059078 0.0042059091
-15.049159 4.2451816 0.004245183
-15.193927 4.2844553 0.0042844568
-20.116014 5.6197619 0.0056197639
-7.8814716 3.0978534 0.0030978546
-8.1632624 3.2007809 0.003200782
-8.8677387 3.4580998 0.0034581008
-9.0086336 3.5095634 0.0035095646
-9.1495295 3.5610273 0.0035610285
-9.4313202 3.6639547 0.003663956
-9.5722151 3.7154186 0.0037154197
-9.71311 3.7668822 0.0037668836
-9.8540058 3.818346 0.0038183474
-9.9949007 3.8698099 0.0038698111
-10.135797 3.9212735 0.003921275
-10.276691 3.9727373 0.0039727385
-10.417586 4.0242009 0.0040242025
-10.558482 4.075665 0.004075666
-10.840273 4.1785922 0.0041785939
-10.981168 4.2300563 0.0042300574
-11.122064 4.2815199 0.0042815213
-11.262959 4.3329835 0.0043329853
-11.544749 4.4359112 0.0044359127
-11.82654 4.5388389 0.0045388401
-12.531016 4.7961574 0.004796159
-13.094597 5.0020123 0.0050020143
-13.235493 5.0534763 0.0050534778
-13.517282 5.1564035 0.0051564053
-17.180559 6.4944615 0.0064944634
-2.9867489 1.6420962 0.0016420967
-7.0768242 3.5186038 0.0035186049
-7.21316 3.5811539 0.0035811551
-7.3494959 3.6437042 0.0036437055
-8.3038464 4.0815558 0.0040815575
-8.4401827 4.1441064 0.0041441075
-8.5765181 4.2066565 0.0042066579
-8.7128544 4.2692065 0.0042692083
-8.8491898 4.3317571 0.0043317582
-8.9855261 4.3943071 0.0043943087
-9.1218615 4.4568577 0.0044568591
-9.2581978 4.5194077 0.004519409
-9.3945332 4.5819578 0.0045819595
-9.5308695 4.6445084 0.0046445099
-9.8035412 4.769609 0.0047696102
-9.9398766 4.832159 0.0048321607
-10.076213 4.8947091 0.0048947111
-10.212548 4.9572597 0.004957261
-10.348885 5.0198097 0.0050198114
-10.48522 5.0823598 0.0050823619
-10.621556 5.1449103 0.0051449118
-10.894228 5.2700109 0.0052700127
-11.030563 5.332561 0.0053325626
-11.303235 5.4576616 0.0054576634
-12.530258 6.0206137 0.0060206158
-6.2675939 3.8374028 0.0038374043
-6.5293956 3.9838951 0.0039838962
-7.0529985 4.2768793 0.004276881
-7.4457006 4.4966178 0.0044966191
-7.5766015 4.5698638 0.0045698653
-7.8384027 4.7163558 0.0047163577
-7.9693036 4.7896023 0.0047896034
-8.2311049 4.9360943 0.0049360958
-8.3620062 5.0093403 0.005009342
-8.4929066 5.0825863 0.0050825882
-8.8856087 5.3023248 0.0053023263
-9.01651 5.3755708 0.0053755725
-9.1474104 5.4488168 0.0054488187
-9.2783108 5.5220628 0.0055220649
-9.4092121 5.5953088 0.0055953111
-9.5401125 5.6685553 0.0056685568
-9.9328146 5.8882933 0.0058882954
-10.063716 5.9615393 0.0059615416
-10.325517 6.1080317 0.0061080335
-10.456418 6.1812778 0.0061812797
-10.587318 6.2545238 0.0062545259
-10.71822 6.3277698 0.006327772
-10.84912 6.4010158 0.0064010182
-11.110922 6.5475082 0.0065475102
-11.241822 6.6207542 0.0066207564
-5.9620695 4.3850656 0.0043850667
-6.0866871 4.4685545 0.004468556
-6.2113047 4.5520434 0.0045520449
-6.3359227 4.6355329 0.0046355342
-6.7097754 4.8860002 0.0048860018
-6.834393 4.9694891 0.0049694907
-6.9590111 5.052978 0.00505298
-7.0836287 5.1364675 0.0051364689
-7.3328638 5.3034453 0.0053034471
-7.4574814 5.3869348 0.0053869365
-7.5820994 5.4704237 0.0054704254
-7.706717 5.5539126 0.0055539147
-7.9559522 5.720891 0.0057208929
-8.2051878 5.8878694 0.0058878711
-8.3298054 5.9713583 0.00597136
-8.454423 6.0548472 0.0060548494
-8.5790405 6.1383367 0.0061383387
-8.8282757 6.3053145 0.0063053169
-8.9528933 6.388804 0.0063888058
-9.0775108 6.4722929 0.0064722952
-9.2021294 6.5557818 0.006555784
-9.3267469 6.6392713 0.0066392734
-9.4513645 6.7227602 0.0067227622
-9.5759821 6.8062491 0.0068062516
-9.7005997 6.8897386 0.0068897405
-9.8252172 6.9732275 0.0069732298
-10.074452 7.1402059 0.007140208
-10.19907 7.2236948 0.0072236969
-5.5071173 4.8070588 0.0048070606
-5.8599739 5.0863295 0.0050863312
-5.9775929 5.17942 0.0051794215
-6.0952115 5.2725101 0.0052725119
-6.2128305 5.3656006 0.0053656022
-6.4480681 5.5517812 0.0055517829
-6.5656867 5.6448712 0.0056448733
-6.8009243 5.8310523 0.0058310539
-6.9185433 5.9241424 0.0059241443
-7.0361624 6.0172329 0.0060172346
-7.5066376 6.3895941 0.006389596
-7.6242561 6.4826841 0.0064826864
-7.7418752 6.5757747 0.0065757767
-7.8594937 6.6688647 0.0066688671
-7.9771128 6.7619553 0.0067619574
-8.3299694 7.0412259 0.0070412285
-8.5652065 7.2274065 0.0072274092
-8.682826 7.320497 0.007320499
-8.8004446 7.4135871 0.0074135894
-8.9180632 7.5066776 0.0075066797
-9.0356817 7.5997677 0.0075997701
-9.1533012 7.6928582 0.0076928604
-9.3885384 7.8790388 0.0078790411
-4.8088326 4.9804797 0.0049804812
-5.1384096 5.2868762 0.005286878
-5.4679866 5.5932732 0.0055932747
-5.5778456 5.6954055 0.0056954073
-5.6877046 5.7975373 0.0057975394
-5.7975636 5.8996696 0.0058996719
-5.9074225 6.001802 0.006001804
-6.0172815 6.1039343 0.0061039361
-6.1271405 6.2060666 0.0062060687
-6.2369995 6.3081985 0.0063082008
-6.3468585 6.4103308 0.0064103329
-6.4567175 6.5124631 0.0065124654
-6.5665765 6.6145954 0.0066145975
-6.6764355 6.7167277 0.0067167296
-6.7862945 6.8188596 0.0068188622
-6.8961535 6.9209919 0.0069209943
-7.0060124 7.0231242 0.0070231264
-7.1158714 7.1252565 0.0071252589
-7.2257304 7.2273889 0.007227391
-7.3355894 7.3295207 0.0073295236
-7.4454484 7.431653 0.0074316557
-7.9947433 7.9423141 0.0079423171
-8.3243208 8.2487106 0.0082487138
-8.7637568 8.6572399 0.0086572431
-4.3294806 5.291791 0.0052917926
-4.4308624 5.4023428 0.0054023447
-4.5322442 5.5128951 0.0055128969
-4.6336255 5.6234469 0.0056234486
-4.7350073 5.7339988 0.0057340008
-4.8363891 5.8445511 0.005844553
-4.9377708 5.9551029 0.0059551052
-5.0391521 6.0656552 0.0060656569
-5.1405339 6.1762071 0.0061762091
-5.2419157 6.2867589 0.0062867613
-5.3432975 6.3973112 0.0063973134
-5.4446788 6.507863 0.0065078652
-5.5460606 6.6184154 0.0066184173
-5.6474423 6.7289672 0.0067289695
-5.7488236 6.839519 0.0068395217
-5.8502054 6.9500713 0.0069500734
-5.9515872 7.0606232 0.0070606256
-6.052969 7.1711755 0.0071711778
-6.1543503 7.2817273 0.0072817295
-6.2557321 7.3922791 0.0073922817
-6.3571138 7.5028315 0.0075028338
-6.5598769 7.7239356 0.0077239377
-6.6612587 7.8344874 0.0078344904
-6.8640218 8.0555916 0.0080555938
-6.9654036 8.1661434 0.0081661465
-7.0667853 8.2766953 0.0082766982
-7.5736933 8.8294554 0.0088294586
-3.7509427 5.4374757 0.0054374775
-3.9354796 5.674005 0.0056740069
-4.0277481 5.7922697 0.0057922713
-4.3045535 6.1470633 0.0061470657
-4.396822 6.2653279 0.0062653301
-4.4890904 6.3835926 0.0063835946
-4.5813589 6.5018573 0.0065018595
-4.6736274 6.620122 0.006620124
-4.7658958 6.7383866 0.0067383889
-4.8581643 6.8566513 0.0068566534
-5.0427012 7.0931802 0.0070931828
-5.1349692 7.2114449 0.0072114472
-5.2272377 7.3297095 0.0073297122
-5.3195062 7.4479742 0.0074479766
-5.4117746 7.5662389 0.0075662411
-5.5040431 7.6845036 0.007684506
-5.5963116 7.8027682 0.0078027705
-5.68858 7.9210324 0.0079210354
-5.7808485 8.0392971 0.0080393003
-5.873117 8.1575623 0.0081575643
-6.2421908 8.63062 0.0086306231
-3.1900942 5.5243998 0.0055244016
-3.2727828 5.64955 0.0056495517
-3.5208488 6.0250006 0.0060250023
-3.6035373 6.1501508 0.0061501525
-3.6862261 6.275301 0.0062753027
-3.7689147 6.4004512 0.0064004534
-3.8516033 6.5256014 0.0065256036
-3.9342921 6.6507516 0.0066507538
-4.0169806 6.7759018 0.006775904
-4.0996695 6.901052 0.0069010542
-4.1823578 7.0262022 0.0070262044
-4.2650466 7.1513524 0.0071513546
-4.3477354 7.2765026 0.0072765048
-4.4304242 7.4016528 0.007401655
-4.5131125 7.5268025 0.0075268052
-4.5958014 7.6519527 0.0076519554
-4.6784902 7.7771029 0.0077771056
-4.7611785 7.9022532 0.0079022562
-4.8438673 8.0274038 0.0080274064
-5.0092444 8.2777042 0.0082777068
-5.0919333 8.402854 0.008402857
-5.1746221 8.5280046 0.0085280072
-5.3399992 8.7783051 0.0087783076
-5.7534423 9.4040556 0.0094040586
-2.7210739 5.686285 0.0056862868
-2.793699 5.8175311 0.005817533
-3.011574 6.2112699 0.006211272
-3.0841992 6.3425164 0.0063425186
-3.1568244 6.4737625 0.0064737648
-3.2294493 6.6050086 0.0066050109
-3.3020744 6.7362552 0.0067362576
-3.4473245 6.9987478 0.0069987499
-3.5199494 7.1299939 0.0071299961
-3.5925746 7.26124 0.0072612427
-3.6651995 7.3924866 0.0073924889
-3.7378247 7.5237327 0.0075237351
-3.8104498 7.6549792 0.0076549817
-3.8830748 7.7862253 0.0077862279
-4.1009498 8.1799641 0.0081799673
-4.1735749 8.3112106 0.008311213
-4.2462001 8.4424562 0.0084424596
-4.4640751 8.8361959 0.0088361986
-4.5367002 8.9674416 0.0089674443
-4.7545753 9.3611803 0.0093611833
-4.8272004 9.4924269 0.0094924299
-2.1396494 5.5289955 0.0055289976
-2.3887389 6.0748472 0.0060748495
-2.5132837 6.3477731 0.006347775
-2.5755563 6.4842362 0.006484238
-2.6378286 6.6206989 0.0066207009
-2.7001011 6.7571616 0.0067571639
-2.7623734 6.8936248 0.0068936269
-2.8246458 7.0300875 0.0070300899
-2.8869183 7.1665506 0.0071665528
-3.0737355 7.5759392 0.0075759417
-3.136008 7.7124023 0.0077124047
-3.1982803 7.848865 0.0078488681
-3.2605529 7.9853282 0.0079853311
-3.3228252 8.1217909 0.0081217941
-4.0078216 9.6228828 0.0096228858
-1.761483 5.7361817 0.0057361834
-1.8130443 5.8770413 0.0058770431
-1.8646057 6.0179005 0.0060179029
-1.9677283 6.2996197 0.0062996219
-2.0192897 6.4404793 0.0064404816
-2.1224122 6.7221985 0.0067222007
-2.1739736 6.8630581 0.0068630604
-2.2255349 7.0039177 0.0070039197
-2.2770963 7.1447768 0.0071447794
-2.3286576 7.2856364 0.0072856392
-2.380219 7.426496 0.0074264985
-2.4317803 7.5673556 0.0075673582
-2.4833417 7.7082152 0.0077082179
-2.534903 7.8490748 0.0078490777
-2.7927096 8.5533724 0.0085533755
-1.2867651 5.6250825 0.0056250845
-1.3676859 5.9139628 0.0059139649
-1.4081464 6.058403 0.0060584047
-1.4486067 6.2028432 0.0062028449
-1.5295275 6.4917231 0.0064917253
-1.5699879 6.6361632 0.0066361655
-1.6509087 6.9250431 0.0069250455
-1.6913691 7.0694833 0.0070694857
-1.7318295 7.2139235 0.0072139259
-1.7722899 7.3583636 0.0073583662
-1.8532107 7.6472435 0.0076472461
-1.8936712 7.7916837 0.0077916863
-1.9341315 7.9361238 0.0079361266
-1.9745919 8.0805635 0.0080805663
-2.0150523 8.2250042 0.008225007
-0.87783384 5.622582 0.0056225834
-0.90684682 5.7697492 0.005769751
-0.9938857 6.2112513 0.0062112533
-1.0228987 6.3584185 0.0063584205
-1.0519116 6.5055857 0.0065055881
-1.0809245 6.6527534 0.0066527552
-1.1099375 6.7999206 0.0067999228
-1.1679634 7.094255 0.0070942575
-1.1969764 7.2414227 0.0072414251
-1.2259893 7.3885899 0.0073885922
-1.2550023 7.5357571 0.0075357598
-1.2840153 7.6829247 0.007682927
-1.3130282 7.830092 0.0078300945
-1.3420411 7.9772592 0.0079772621
-1.3710542 8.1244268 0.0081244297
-1.4000671 8.271594 0.0082715964
-1.516119 8.8602629 0.0088602658
-1.6031579 9.3017654 0.0093017686
-1.6901968 9.7432671 0.0097432705
-0.51491964 5.8887944 0.0058887964
-0.53214484 6.0378017 0.0060378038
-0.56659526 6.3358173 0.0063358191
-0.5838204 6.4848247 0.006484827
-0.60104561 6.6338325 0.0066338344
-0.61827081 6.7828398 0.0067828423
-0.63549602 6.9318476 0.0069318498
-0.65272117 7.0808554 0.0070808576
-0.66994637 7.2298627 0.0072298651
-0.68717158 7.3788705 0.0073788729
-0.70439678 7.5278783 0.0075278804
-0.72162193 7.6768856 0.0076768883
-0.73884714 7.8258934 0.0078258961
-0.79052275 8.2729158 0.0082729189
-0.84219831 8.7199392 0.0087199416
-0.87664866 9.0179539 0.0090179574
-0.12366019 6.1197128 0.0061197146
-0.12899165 6.269618 0.0062696198
-0.13965456 6.569428 0.0065694302
-0.144986 6.7193332 0.0067193354
-0.15031746 6.8692384 0.0068692407
-0.15564892 7.0191436 0.0070191459
-0.16098037 7.1690488 0.0071690511
-0.16631183 7.318954 0.0073189563
-0.17164329 7.4688592 0.0074688615
-0.1823062 7.7686691 0.007768672
-0.18763766 7.9185743 0.0079185767
-0.1929691 8.0684795 0.0080684824
-0.21962638 8.8180056 0.008818008
-0.22495784 8.9679108 0.0089679137
-0.2302893 9.117816 0.0091178184
-0.23562074 9.2677212 0.0092677241
0.28699735 6.1671906 0.0061671925
0.29373303 6.317039 0.0063170413
0.30720443 6.6167364 0.0066167386
0.31394011 6.7665849 0.006766587
0.32067582 6.9164338 0.0069164359
0.3274115 7.0662823 0.0070662848
0.33414719 7.2161307 0.0072161332
0.34088287 7.3659797 0.007365982
0.34761858 7.5158281 0.0075158305
0.35435426 7.6656766 0.0076656793
0.36108994 7.8155255 0.0078155277
0.36782566 7.965374 0.0079653766
0.37456134 8.1152229 0.0081152255
0.3880327 8.4149199 0.0084149223
0.39476842 8.5647688 0.0085647712
0.4015041 8.7146168 0.00871462
0.40823978 8.8644657 0.0088644689
0.41497546 9.0143147 0.0090143168
0.45538962 9.9134064 0.0099134091
0.4621253 10.063254 0.010063258
0.72215563 6.3278451 0.0063278475
0.74105281 6.4766502 0.0064766523
0.75994998 6.6254549 0.0066254572
0.77884716 6.7742596 0.0067742621
0.79774427 6.9230647 0.0069230669
0.83553863 7.220674 0.0072206766
0.8544358 7.3694792 0.0073694815
0.87333292 7.5182838 0.0075182864
0.89223009 7.6670885 0.0076670912
0.91112727 7.8158937 0.0078158956
0.93002445 7.9646983 0.0079647014
0.96781874 8.2623081 0.0082623111
0.98671591 8.4111128 0.008411116
1.0056131 8.5599174 0.0085599208
1.0623046 9.0063324 0.0090063354
0.96392316 5.4284043 0.0054284059
1.1503687 6.3088799 0.006308882
1.2125173 6.6023717 0.0066023739
1.2435915 6.7491179 0.0067491201
1.2746658 6.8958635 0.0068958658
1.3057401 7.0426097 0.0070426119
1.3368143 7.1893554 0.0071893577
1.3678886 7.3361015 0.0073361038
1.3989629 7.4828472 0.00748285
1.4300371 7.6295934 0.0076295957
1.4611114 7.7763391 0.0077763419
1.4921857 7.9230852 0.007923088
1.52326 8.0698309 0.0080698337
1.5543342 8.2165766 0.0082165794
1.5854084 8.3633232 0.0083633261
1.6164827 8.5100689 0.0085100718
1.647557 8.6568146 0.0086568175
1.8650769 9.6840363 0.0096840393
1.5284802 6.1041746 0.0061041769
1.5716522 6.2478275 0.0062478296
1.6148242 6.3914804 0.0063914824
1.6579961 6.5351334 0.0065351357
1.7011681 6.6787863 0.0066787885
1.7443401 6.8224392 0.0068224417
1.7875121 6.9660921 0.0069660945
1.8306841 7.109745 0.0071097473
1.8738561 7.2533979 0.0072534005
1.917028 7.3970509 0.0073970533
1.9602 7.5407038 0.0075407061
2.003372 7.6843567 0.0076843593
2.0465438 7.8280096 0.0078280121
2.089716 7.9716625 0.0079716649
2.17606 8.2589684 0.0082589714
2.2192318 8.4026213 0.0084026242
2.3055758 8.6899271 0.0086899297
2.3487477 8.83358 0.0088335825
2.3919199 8.9772329 0.0089772362
2.5214357 9.4081917 0.0094081946
2.5646076 9.5518446 0.0095518474
2.6077797 9.6954975 0.0096955011
1.4344308 4.7715335 0.0047715353
1.8751509 5.8876719 0.0058876737
1.9302409 6.0271893 0.0060271909
2.040421 6.3062239 0.0063062259
2.095511 6.4457412 0.0064457431
2.2607808 6.8642926 0.0068642949
2.315871 7.0038099 0.0070038126
2.370961 7.1433272 0.0071433298
2.4260509 7.2828445 0.0072828471
2.4811409 7.4223619 0.0074223643
2.536231 7.5618792 0.0075618816
2.591321 7.7013965 0.0077013988
2.6464109 7.8409138 0.0078409165
2.7015009 7.9804311 0.0079804333
2.7565911 8.1199484 0.008119951
2.9218609 8.5384998 0.0085385032
2.9769511 8.6780176 0.00867802
3.087131 8.9570522 0.0089570554
3.142221 9.0965691 0.0090965722
3.1973112 9.2360868 0.0092360899
3.2524011 9.3756037 0.0093756067
3.3074911 9.5151215 0.0095151244
3.4176712 9.7941561 0.0097941589
2.1961598 5.6157064 0.0056157084
2.2630014 5.7499905 0.0057499921
2.4635262 6.152842 0.0061528441
2.5303679 6.2871261 0.0062871282
2.797734 6.8242621 0.0068242643
2.8645756 6.9585462 0.0069585484
2.9314172 7.0928302 0.0070928321
2.9982588 7.2271137 0.0072271163
3.0651004 7.3613977 0.0073614004
3.131942 7.4956818 0.0074956845
3.1987836 7.6299658 0.0076299682
3.2656252 7.7642498 0.0077642524
3.3324668 7.8985338 0.0078985365
3.3993084 8.0328178 0.0080328202
3.46615 8.1671019 0.0081671048
3.5329916 8.3013859 0.0083013885
3.5998333 8.4356699 0.0084356721
3.6666746 8.5699539 0.0085699568
3.7335162 8.7042379 0.0087042404
3.8003578 8.838522 0.0088385241
3.8671994 8.972806 0.0089728087
3.934041 9.107089 0.0091070924
4.268249 9.7785091 0.0097785126
2.0896447 4.7250113 0.0047250129
2.949635 6.1331716 0.0061331736
3.1059968 6.3892007 0.0063892026
3.1841779 6.5172153 0.006517217
3.2623587 6.6452298 0.006645232
3.3405397 6.7732444 0.0067732465
3.4187207 6.9012589 0.0069012609
3.4969015 7.0292735 0.0070292754
3.5750825 7.1572876 0.0071572904
3.7314444 7.4133167 0.0074133193
3.8096254 7.5413313 0.0075413338
3.8878062 7.6693459 0.0076693487
3.9659872 7.7973604 0.0077973632
4.1223493 8.0533895 0.0080533922
4.2005301 8.1814041 0.0081814071
4.2787108 8.3094187 0.0083094211
4.3568916 8.4374332 0.0084374361
4.4350729 8.5654478 0.008565451
4.5914345 8.8214769 0.00882148
4.6696157 8.9494915 0.0089494949
4.7477965 9.0775061 0.0090775089
4.8259773 9.2055206 0.0092055239
5.1387014 9.7175789 0.0097175818
5.3732438 10.101623 0.010101626
5.4514251 10.229637 0.010229641
3.7915874 6.4733367 0.0064733392
3.8805194 6.5941305 0.0065941326
3.9694514 6.7149239 0.0067149261
4.0583835 6.8357177 0.0068357196
4.1473155 6.956511 0.0069565135
4.2362475 7.0773044 0.007077307
4.3251796 7.1980982 0.0071981004
4.4141116 7.3188915 0.0073188944
4.5030437 7.4396853 0.0074396878
4.6809072 7.6812725 0.0076812748
4.7698393 7.8020658 0.0078020687
4.8587713 7.9228597 0.0079228617
4.9477034 8.0436535 0.0080436561
5.1255674 8.2852402 0.0082852431
5.2144995 8.4060335 0.0084060365
5.3034315 8.5268269 0.00852683
5.3923635 8.6476212 0.0086476235
5.4812956 8.7684145 0.0087684169
5.5702276 8.8892078 0.0088892113
5.6591597 9.0100012 0.0090100048
5.8370237 9.2515888 0.0092515917
4.5222778 6.4610915 0.0064610937
4.621511 6.573576 0.0065735783
4.7207441 6.6860604 0.006686063
4.8199768 6.7985454 0.0067985477
4.91921 6.9110298 0.0069110324
5.0184426 7.0235147 0.007023517
5.1176758 7.1359992 0.0071360017
5.2169089 7.2484841 0.0072484864
5.3161416 7.3609686 0.0073609711
5.4153748 7.4734535 0.0074734557
5.5146079 7.585938 0.0075859409
5.6138406 7.6984229 0.0076984256
5.7130737 7.8109074 0.0078109102
5.8123069 7.9233923 0.0079233944
5.9115396 8.0358772 0.0080358796
6.0107727 8.1483612 0.0081483647
6.1100054 8.2608461 0.0082608489
6.2092385 8.3733311 0.0083733341
6.3084717 8.485816 0.0084858183
6.5069375 8.7107849 0.0087107876
4.8501577 5.9365811 0.005936583
4.9590883 6.0397029 0.0060397051
5.2858791 6.3490696 0.0063490719
5.3948092 6.4521918 0.0064521939
5.5037394 6.5553141 0.006555316
5.6126699 6.6584363 0.0066584381
5.7216001 6.7615581 0.0067615607
5.8305306 6.8646803 0.0068646828
5.9394608 6.9678025 0.0069678049
6.0483909 7.0709248 0.0070709269
6.1573215 7.174047 0.0071740495
6.3751817 7.3802915 0.0073802937
6.4841123 7.4834137 0.0074834158
6.5930424 7.5865355 0.0075865383
6.701973 7.6896577 0.0076896604
6.8109031 7.7927799 0.0077927825
7.0287638 7.9990244 0.0079990271
7.1376939 8.1021461 0.0081021488
7.246624 8.2052689 0.0082052713
5.3566747 5.5800891 0.0055800909
5.4744468 5.6729856 0.0056729876
5.5922184 5.765882 0.0057658842
5.7099905 5.858779 0.0058587808
5.8277621 5.9516754 0.0059516774
5.9455342 6.0445719 0.0060445741
6.0633059 6.1374683 0.0061374707
6.181078 6.2303653 0.0062303673
6.2988496 6.3232617 0.006323264
6.4166217 6.4161582 0.0064161606
6.5343933 6.5090551 0.0065090572
6.6521654 6.6019516 0.0066019539
6.8877091 6.7877445 0.0067877471
7.0054808 6.8806415 0.0068806438
7.1232529 6.9735379 0.0069735404
7.2410245 7.0664344 0.007066437
7.3587966 7.1593308 0.0071593332
7.4765687 7.2522278 0.0072522298
7.5943403 7.3451242 0.0073451265
7.7121124 7.4380207 0.0074380231
5.5823255 5.0110836 0.005011085
5.7079172 5.0931001 0.0050931019
5.9591012 5.257133 0.0052571348
6.4614682 5.5851989 0.0055852006
6.58706 5.6672153 0.0056672171
6.8382435 5.8312483 0.0058312505
6.9638352 5.9132648 0.0059132669
7.591794 6.3233471 0.0063233492
7.7173858 6.4053636 0.0064053657
7.8429775 6.48738 0.0064873821
7.9685693 6.5693965 0.006569399
8.094161 6.651413 0.0066514155
9.2244864 7.3895612 0.0073895641
5.7374682 4.4516983 0.0044516996
5.8695831 4.5227308 0.0045227325
6.001698 4.5937634 0.0045937649
7.4549623 5.3751235 0.0053751254
7.5870771 5.446156 0.0054461579
7.719192 5.517189 0.0055171908
7.8513069 5.5882215 0.0055882237
7.9834218 5.6592546 0.0056592561
8.1155367 5.7302871 0.005730289
8.2476511 5.8013196 0.0058013219
8.5118809 5.9433851 0.0059433873
9.4366856 6.4406142 0.0064406167
1.4187717 2.0552671 0.0020552676
7.5982976 4.7711377 0.004771139
7.7356205 4.83149 0.004831492
7.8729434 4.8918428 0.0048918445
8.0102663 4.9521956 0.004952197
8.1475887 5.0125484 0.0050125499
8.2849112 5.0729008 0.0050729024
8.4222345 5.1332536 0.0051332554
8.559557 5.1936064 0.0051936079
8.6968803 5.2539587 0.0052539608
8.9715252 5.3746643 0.0053746663
9.1088486 5.4350171 0.0054350188
9.6581392 5.6764278 0.0056764297
9.7954626 5.7367802 0.0057367822
1.5894077 2.0573273 0.0020573279
7.8101273 4.2624664 0.0042624678
7.9515076 4.3125834 0.0043125846
8.0928879 4.3627 0.0043627014
8.2342672 4.412817 0.0044128187
8.3756475 4.462934 0.0044629355
8.6584072 4.5631676 0.0045631691
9.0825472 4.7135177 0.0047135195
1.4651769 1.9633535 0.0019633542
7.8151994 3.7625785 0.0037625798
7.959518 3.8034701 0.0038034713
8.103837 3.8443615 0.0038443629
8.2481556 3.885253 0.0038852543
8.5367928 3.967036 0.0039670374
8.6811113 4.0079274 0.004007929
7.9253311 3.3307779 0.0033307788
8.0719032 3.3626618 0.0033626629
8.2184753 3.3945456 0.0033945467
8.5116196 3.4583135 0.0034583146
8.9513369 3.5539653 0.0035539665
9.2444811 3.6177332 0.0036177344
7.999104 2.8814213 0.0028814224
8.1473742 2.90414 0.0029041411
8.2956429 2.9268589 0.0029268598
8.4439125 2.9495776 0.0029495787
6.4023385 2.259474 0.0022594747
7.8968072 2.3881714 0.0023881723
8.0462542 2.4010413 0.002401042
8.1957006 2.4139111 0.0024139117
8.3451481 2.4267807 0.0024267815
8.4945946 2.4396505 0.0024396512
7.9107041 1.8941348 0.0018941354
8.0606794 1.8968557 0.0018968564
8.2106552 1.8995767 0.0018995772
8.36063 1.9022976 0.0019022982
8.5106058 1.9050184 0.0019050192
8.6605806 1.9077394 0.00190774
7.8774519 1.384829 0.0013848294
8.0272589 1.3772185 0.001377219
8.1770649 1.369608 0.0013696084
8.3268719 1.3619976 0.001361998
8.4766788 1.354387 0.0013543875
8.6264858 1.3467766 0.0013467771
7.8109932 0.85439759 0.00085439783
7.9598722 0.83609372 0.00083609397
8.1087513 0.81778985 0.0008177901
8.2576303 0.79948598 0.00079948624
8.4065094 0.78118211 0.00078118237
8.5553885 0.76287824 0.00076287851
8.7042675 0.74457437 0.00074457465
7.545177 0.32854173 0.00032854182
7.8393102 0.26950341 0.00026950351
7.9863772 0.23998429 0.00023998437
8.1334438 0.21046513 0.00021046521
8.2805109 0.18094599 0.00018094605
8.427577 0.15142685 0.0001514269
7.3765202 -0.26017475 -0.00026017483
7.8089733 -0.38461116 -0.00038461128
7.953124 -0.42608997 -0.00042609012
8.0972748 -0.46756878 -0.00046756893
8.2414265 -0.50904757 -0.00050904776
8.3855772 -0.55052638 -0.0005505266
8.6738787 -0.63348401 -0.00063348422
7.9750495 -1.2128316 -0.0012128321
8.1149035 -1.2670621 -0.0012670625
8.2547569 -1.3212925 -0.0013212929
8.3946104 -1.3755229 -0.0013755234
8.5344639 -1.4297533 -0.0014297538
8.6743174 -1.4839838 -0.0014839843
8.8141718 -1.5382142 -0.0015382147
16.366272 -4.4666576 -0.0044666594
7.8879271 -2.0764754 -0.0020764761
8.0219507 -2.1438367 -0.0021438375
8.1559753 -2.2111983 -0.0022111989
8.289999 -2.2785597 -0.0022785603
8.4240236 -2.345921 -0.0023459217
8.5580473 -2.4132824 -0.0024132831
8.692071 -2.4806437 -0.0024806445
8.8260956 -2.5480051 -0.0025480059
8.9601192 -2.6153665 -0.0026153673
12.846816 -4.5688467 -0.0045688483
12.98084 -4.6362081 -0.0046362095
6.2834754 -2.1057091 -0.0021057099
7.8023763 -3.0715969 -0.0030715978
7.9289513 -3.1520875 -0.0031520885
8.0555267 -3.232578 -0.0032325792
8.1821012 -3.3130686 -0.0033130697
8.3086767 -3.3935592 -0.0033935604
8.4352512 -3.47405 -0.0034740511
8.5618267 -3.5545406 -0.0035545419
8.6884022 -3.6350312 -0.0036350323
8.8149767 -3.7155218 -0.0037155231
8.9415522 -3.7960124 -0.0037960138
9.0681267 -3.8765032 -0.0038765045
9.4478521 -4.1179752 -0.0041179764
9.5744276 -4.1984658 -0.0041984669
10.080728 -4.5204282 -0.0045204298
10.333878 -4.6814094 -0.0046814112
10.587028 -4.8423905 -0.0048423922
10.840178 -5.0033722 -0.0050033736
10.966753 -5.0838628 -0.0050838646
11.219903 -5.244844 -0.0052448455
11.346478 -5.3253345 -0.0053253365
5.8066397 -2.7272632 -0.0027272641
8.0394678 -4.4984136 -0.0044984152
8.1569853 -4.5916324 -0.0045916336
8.2745028 -4.6848507 -0.0046848524
8.3920202 -4.778069 -0.0047780708
8.5095377 -4.8712878 -0.0048712892
8.6270542 -4.9645061 -0.0049645077
8.7445717 -5.0577245 -0.0050577261
8.8620892 -5.1509428 -0.0051509445
8.9796066 -5.2441616 -0.0052441633
9.0971241 -5.3373799 -0.0053373817
9.2146406 -5.4305983 -0.0054306001
6.8579125 -4.8741031 -0.0048741046
6.9648876 -4.9792523 -0.0049792537
7.0718622 -5.0844016 -0.0050844033
7.1788373 -5.1895509 -0.0051895524
7.2858124 -5.2946997 -0.0052947016
7.392787 -5.3998489 -0.0053998507
7.4997621 -5.5049982 -0.0055050002
7.6067367 -5.6101475 -0.0056101494
7.9276614 -5.9255953 -0.0059255972
8.3555613 -6.3461919 -0.0063461941
8.7834606 -6.766789 -0.006766791
8.8904362 -6.8719382 -0.0068719406
9.1043854 -7.0822368 -0.0070822388
4.5497503 -3.6856344 -0.0036856357
5.8850484 -5.3064294 -0.0053064311
5.9804268 -5.4222002 -0.0054222024
6.0758052 -5.5379715 -0.0055379733
6.1711841 -5.6537428 -0.0056537446
6.2665625 -5.7695136 -0.0057695154
6.3619409 -5.8852849 -0.0058852867
6.4573193 -6.0010557 -0.0060010576
4.8195424 -5.4813509 -0.0054813526
4.902503 -5.6063209 -0.0056063225
4.9854636 -5.7312908 -0.0057312925
5.0684242 -5.8562608 -0.0058562625
5.1513848 -5.9812307 -0.005981233
5.2343454 -6.1062007 -0.006106203
3.8904984 -5.6284318 -0.0056284335
3.9606307 -5.7610269 -0.0057610287
4.0307631 -5.8936219 -0.0058936239
4.1008954 -6.026217 -0.0060262191
4.1710277 -6.158812 -0.0061588138
4.2411599 -6.2914071 -0.006291409
3.0070355 -5.4912925 -0.0054912944
3.0653691 -5.6294851 -0.0056294869
3.123703 -5.7676773 -0.0057676793
3.1820366 -5.90587 -0.0059058717
3.2403703 -6.0440621 -0.0060440642
3.2987041 -6.1822548 -0.0061822566
3.3570378 -6.3204474 -0.0063204495
8.023736 -17.375845 -0.017375851
2.4608777 -5.7994184 -0.0057994206
2.508805 -5.9415555 -0.0059415577
2.5567324 -6.0836926 -0.0060836948
2.6046598 -6.2258296 -0.0062258318
2.7005148 -6.5101037 -0.0065101059
6.4388533 -17.596794 -0.0175968
1.841326 -5.7807884 -0.0057807905
1.8793237 -5.9258957 -0.0059258975
1.9173213 -6.071003 -0.006071005
1.9553189 -6.2161107 -0.0062161125
1.9933167 -6.361218 -0.00636122
1.06431 -4.6738276 -0.0046738293
1.2921913 -5.8519907 -0.0058519929
1.3206764 -5.9992614 -0.0059992634
1.3491616 -6.1465316 -0.0061465339
1.3776467 -6.2938023 -0.0062938039
1.4061319 -6.4410725 -0.0064410744
1.434617 -6.5883427 -0.0065883449
0.77919108 -5.8828449 -0.0058828471
0.79881895 -6.0315552 -0.0060315575
0.81844682 -6.1802654 -0.0061802678
0.83807468 -6.3289757 -0.0063289776
0.85770255 -6.4776859 -0.006477688
1.760585 -13.318356 -0.01331836
1.7802128 -13.467066 -0.01346707
1.7998407 -13.615776 -0.013615781
2.4279327 -18.374502 -0.018374508
0.27424192 -5.8940864 -0.0058940882
0.28523108 -6.0436831 -0.0060436851
0.29622024 -6.1932797 -0.0061932821
0.3072094 -6.3428769 -0.006342879
0.31819856 -6.4924736 -0.006492476
0.32918772 -6.6420703 -0.0066420729
0.81271076 -13.224332 -0.013224336
1.1863422 -18.310625 -0.018310631
-0.22676842 -5.8671794 -0.0058671813
-0.22444664 -6.0171614 -0.0060171634
-0.22212484 -6.1671433 -0.0061671454
-0.21980305 -6.3171253 -0.006317127
-0.21748126 -6.4671073 -0.0064671091
-0.21515948 -6.6170893 -0.0066170911
-0.027094483 -18.765627 -0.018765634
-0.74140292 -5.9820681 -0.0059820698
-0.74769175 -6.1319361 -0.0061319382
-0.75398058 -6.2818041 -0.0062818062
-0.76026946 -6.4316721 -0.0064316741
-0.76655829 -6.5815401 -0.0065815421
-0.77284712 -6.7314081 -0.0067314105
-1.269039 -5.9089332 -0.0059089353
-1.2841955 -6.0581656 -0.0060581672
-1.299352 -6.2073975 -0.0062073995
-1.3145086 -6.3566298 -0.0063566319
-1.3296651 -6.5058622 -0.0065058642
-1.3448216 -6.6550941 -0.0066550965
-1.359978 -6.8043265 -0.0068043289
-1.3751345 -6.9535589 -0.0069535612
-1.8312212 -5.9605846 -0.0059605865
-1.8554628 -6.1086125 -0.0061086146
-1.8797042 -6.2566409 -0.0062566428
-1.9039457 -6.4046688 -0.0064046714
-1.9281873 -6.5526972 -0.0065526995
-1.9524287 -6.7007251 -0.0067007276
-2.442384 -5.991003 -0.0059910049
-2.4759369 -6.1372018 -0.0061372039
-2.5094898 -6.283401 -0.0062834034
-2.5430427 -6.4296002 -0.0064296024
-2.5765955 -6.5757995 -0.0065758014
-2.6101484 -6.7219987 -0.0067220009
-2.6437013 -6.8681974 -0.0068681999
-3.0835018 -5.9733348 -0.0059733368
-3.1266761 -6.1169868 -0.0061169886
-3.1698506 -6.2606392 -0.0062606409
-3.2130249 -6.4042912 -0.0064042932
-3.2561994 -6.5479431 -0.0065479456
-3.2993736 -6.6915956 -0.0066915979
-3.3425481 -6.8352475 -0.0068352502
-3.4288969 -7.1225519 -0.0071225544
-7.1418943 -19.476641 -0.019476647
-3.8730066 -6.1765413 -0.0061765434
-3.926244 -6.3167763 -0.0063167783
-3.9794817 -6.4570107 -0.0064570131
-4.0327191 -6.5972452 -0.0065972474
-4.0859566 -6.7374802 -0.0067374823
-4.139194 -6.8777146 -0.0068777171
-4.7544498 -6.2991424 -0.0062991446
-4.8181639 -6.434938 -0.0064349403
-4.8818784 -6.570734 -0.0065707359
-4.9455924 -6.7065296 -0.0067065316
-5.0093069 -6.8423252 -0.0068423273
-5.0730214 -6.9781208 -0.006978123
-5.1367354 -7.1139164 -0.0071139191
-5.6253567 -6.1959972 -0.0061959992
-5.6996212 -6.3263226 -0.0063263248
-5.7738857 -6.4566483 -0.0064566508
-5.8481503 -6.5869741 -0.0065869763
-5.9224148 -6.7172999 -0.0067173019
-5.9966788 -6.8476253 -0.0068476279
-6.0709434 -6.977951 -0.0069779535
-6.2194724 -7.2386026 -0.0072386051
-6.368001 -7.4992537 -0.0074992562
-6.4422655 -7.6295795 -0.0076295817
-6.51653 -7.7599049 -0.0077599077
-6.5907946 -7.8902307 -0.0078902338
-6.6650586 -8.0205564 -0.0080205593
-6.9621162 -8.5418587 -0.0085418615
-7.0250993 -6.7464232 -0.0067464253
-7.1095829 -6.870369 -0.0068703713
-7.194066 -6.9943147 -0.0069943168
-7.2785497 -7.1182604 -0.0071182628
-7.3630328 -7.2422061 -0.0072422088
-7.4475164 -7.3661518 -0.0073661543
-16.571718 -20.752293 -0.0207523
-8.1688023 -6.6560378 -0.00665604
-8.2630281 -6.7727489 -0.0067727515
-8.3572531 -6.8894606 -0.0068894629
-8.451478 -7.0061722 -0.0070061744
-8.5457039 -7.1228838 -0.0071228859
-8.6399288 -7.2395954 -0.0072395978
-8.8283796 -7.4730182 -0.0074730208
-8.9226046 -7.5897298 -0.0075897323
-9.0168304 -7.7064414 -0.0077064442
-9.6447973 -6.7755623 -0.0067755645
-9.7480621 -6.8843575 -0.0068843598
-9.8513279 -6.9931521 -0.0069931545
-9.9545927 -7.1019473 -0.0071019498
-10.161122 -7.3195372 -0.0073195393
-10.264387 -7.4283319 -0.0074283346
-10.574183 -7.7547164 -0.0077547194
-11.515046 -7.0251131 -0.0070251152
-11.738214 -7.2256026 -0.0072256052
-11.849797 -7.3258471 -0.00732585
-11.961382 -7.4260921 -0.0074260947
-12.184549 -7.6265817 -0.0076265843
-12.296133 -7.7268267 -0.007726829
-12.519301 -7.9273162 -0.007927319
-12.630885 -8.0275612 -0.0080275638
-13.300388 -8.6290293 -0.0086290324
-14.064534 -7.4976273 -0.0074976296
-14.183689 -7.5887423 -0.0075887446
-14.302845 -7.6798573 -0.0076798596
-14.422001 -7.7709723 -0.0077709747
-14.660312 -7.9532018 -0.0079532042
-17.374939 -8.0381813 -0.0080381837
-17.500883 -8.1196537 -0.0081196558
-17.878719 -8.3640709 -0.0083640739
-18.004665 -8.4455433 -0.008445546
-18.13061 -8.5270166 -0.0085270191
-18.382502 -8.6899614 -0.0086899642
-21.092978 -8.2666607 -0.0082666632
-23.59951 -9.6230507 -0.0096230544
-23.731432 -9.6944399 -0.0096944431
-23.863356 -9.7658291 -0.0097658327
-23.995277 -9.8372183 -0.0098372214
-24.127201 -9.9086075 -0.00990861
-25.050661 -10.40833 -0.010408334
-24.642746 -7.8902721 -0.0078902747
-5.5953279 1.8404905 0.0018404911
-2.4380381 2.7301018 0.0027301025
