# .PCD v0.7 - Point Cloud Data file format
VERSION 0.7
FIELDS x y z
SIZE 4 4 4
TYPE F F F
COUNT 1 1 1
WIDTH 1092
HEIGHT 1
VIEWPOINT 0 0 0 1 0 0 0
POINTS 1092
DATA ascii
-20.673574 5.1679082 0.0051679099
-21.256029 5.3119521 0.0053119538
-21.692867 5.4199848 0.0054199868
-21.838482 5.455996 0.0054559978
-21.984095 5.4920068 0.0054920088
-22.566547 5.6360507 0.0056360527
-14.188686 4.967865 0.0049678665
-14.472516 5.0650272 0.0050650286
-14.614431 5.1136084 0.0051136101
-14.898261 5.2107706 0.0052107722
-15.040176 5.2593517 0.0052593537
-15.182091 5.3079329 0.0053079347
-15.324006 5.356514 0.0053565158
-15.607836 5.4536762 0.0054536783
-16.175497 5.6480007 0.005648003
-16.459326 5.745163 0.0057451651
-17.168901 5.9880691 0.0059880707
-17.878477 6.2309747 0.0062309769
-18.162306 6.3281369 0.006328139
-18.304222 6.376718 0.0063767205
-18.588051 6.4738803 0.0064738826
-18.729967 6.5224614 0.0065224636
-19.013796 6.6196237 0.0066196262
-19.865286 6.9111109 0.0069111129
-10.677152 4.9296565 0.0049296585
-10.814116 4.990819 0.0049908208
-10.951079 5.0519819 0.0050519835
-11.225008 5.1743069 0.0051743085
-11.498936 5.2966318 0.0052966336
-11.6359 5.3577943 0.0053577959
-12.046792 5.5412817 0.0055412836
-12.868576 5.9082565 0.0059082587
-13.142504 6.0305815 0.0060305838
-13.279469 6.0917439 0.006091746
-13.416432 6.1529069 0.0061529088
-13.553396 6.2140694 0.0062140711
-13.69036 6.2752318 0.0062752338
-13.827324 6.3363943 0.0063363961
-14.101253 6.4587193 0.0064587211
-14.37518 6.5810442 0.0065810462
-14.512144 6.6422067 0.0066422089
-14.649109 6.7033691 0.0067033712
-14.786073 6.7645316 0.0067645339
-14.923037 6.8256941 0.0068256962
-15.06 6.8868566 0.006886859
-15.196964 6.948019 0.0069480217
-15.333929 7.0091815 0.007009184
-16.155712 7.3761568 0.0073761591
-16.566605 7.5596442 0.0075596469
-7.9729853 4.6836338 0.0046836352
-8.3655548 4.9036093 0.0049036108
-8.4964113 4.9769344 0.0049769362
-8.6272678 5.0502596 0.005050261
-8.7581244 5.1235847 0.0051235864
-8.8889809 5.1969099 0.0051969113
-9.0198374 5.2702351 0.0052702366
-9.4124069 5.4902105 0.0054902122
-9.5432634 5.5635357 0.0055635371
-9.8049765 5.710186 0.0057101878
-9.935833 5.7835112 0.0057835127
-10.066689 5.8568358 0.0058568381
-10.197546 5.930161 0.005930163
-10.459258 6.0768113 0.0060768137
-10.720971 6.2234616 0.0062234639
-10.982684 6.3701119 0.0063701142
-12.160393 7.0300384 0.007030041
-14.384953 8.2765656 0.0082765687
-14.646666 8.4232159 0.0084232194
-15.039235 8.6431913 0.0086431941
-16.609512 9.5230932 0.0095230965
-6.1794553 4.4880905 0.0044880919
-6.4271832 4.6572967 0.0046572983
-6.5510473 4.7419 0.0047419015
-6.6749115 4.8265028 0.0048265047
-6.9226394 4.9957094 0.0049957111
-7.0465035 5.0803123 0.0050803144
-7.1703672 5.1649156 0.0051649176
-7.2942314 5.2495189 0.0052495203
-7.4180956 5.3341217 0.0053341235
-7.5419598 5.418725 0.0054187267
-7.6658235 5.5033283 0.0055033299
-7.7896876 5.5879312 0.0055879331
-7.9135518 5.6725345 0.0056725363
-8.0374155 5.7571378 0.0057571395
-8.1612797 5.8417406 0.0058417427
-8.2851439 5.9263439 0.0059263459
-8.409008 6.0109472 0.0060109491
-8.5328722 6.0955505 0.0060955524
-8.6567354 6.1801534 0.0061801556
-8.9044638 6.34936 0.006349362
-9.0283279 6.4339628 0.0064339652
-9.2760563 6.6031694 0.0066031716
-9.3999205 6.6877723 0.0066877748
-9.6476479 6.8569789 0.0068569812
-9.771512 6.9415817 0.0069415839
-10.143105 7.1953912 0.0071953936
-10.266969 7.2799945 0.0072799968
-10.390832 7.3645978 0.0073646
-4.9821181 4.3877807 0.0043877824
-5.0983996 4.4825368 0.004482538
-5.4472432 4.7668037 0.0047668056
-5.6798058 4.9563155 0.0049563171
-5.7960873 5.0510712 0.0050510727
-5.9123683 5.1458268 0.0051458287
-6.0286498 5.2405829 0.0052405843
-6.1449308 5.3353386 0.0053353403
-6.2612123 5.4300942 0.0054300963
-6.3774934 5.5248499 0.0055248518
-6.4937749 5.619606 0.0056196079
-6.6100559 5.7143617 0.0057143634
-6.7263374 5.8091173 0.0058091194
-6.8426189 5.903873 0.005903875
-7.0751815 6.0933847 0.0060933866
-7.4240251 6.3776522 0.0063776542
-7.6565876 6.5671635 0.0065671657
-7.7728691 6.6619191 0.0066619213
-7.8891501 6.7566748 0.0067566773
-8.0054312 6.8514309 0.0068514328
-8.1217127 6.9461865 0.0069461889
-8.2379942 7.0409422 0.0070409444
-8.5868378 7.3252096 0.007325212
-8.8194008 7.5147209 0.0075147236
-9.1682444 7.7989883 0.0077989912
-11.610151 9.7888594 0.0097888624
-4.0750241 4.3259425 0.004325944
-4.1828599 4.4302092 0.0044302107
-4.2906952 4.5344758 0.0045344769
-4.398531 4.638742 0.0046387436
-4.8298731 5.0558076 0.0050558094
-5.0455441 5.2643404 0.0052643423
-5.1533794 5.368607 0.005368609
-5.2612152 5.4728737 0.0054728752
-5.3690505 5.5771399 0.0055771419
-5.4768858 5.6814065 0.0056814081
-5.5847216 5.7856727 0.0057856748
-5.6925569 5.8899393 0.005889941
-5.8003926 5.9942055 0.0059942077
-5.9082279 6.0984721 0.0060984739
-6.0160637 6.2027388 0.0062027406
-6.123899 6.3070049 0.0063070073
-6.2317348 6.4112716 0.0064112735
-6.33957 6.5155377 0.0065155402
-6.5552411 6.7240705 0.0067240731
-6.6630769 6.8283372 0.0068283393
-6.7709122 6.9326034 0.006932606
-7.094419 7.2454028 0.0072454051
-7.3100901 7.4539356 0.0074539385
-7.5257611 7.6624684 0.0076624714
-7.6335964 7.7667351 0.0077667376
-7.8492675 7.9752679 0.007975271
-3.5261061 4.4860859 0.0044860877
-3.6248031 4.5990415 0.0045990432
-3.7234998 4.711997 0.0047119986
-3.9208934 4.9379077 0.0049379095
-4.0195904 5.0508633 0.005050865
-4.2169838 5.2767739 0.0052767759
-4.4143772 5.5026851 0.0055026868
-4.5130744 5.6156402 0.0056156423
-4.6117711 5.7285957 0.0057285978
-4.7104678 5.8415513 0.0058415532
-4.8091645 5.9545069 0.0059545087
-4.9078612 6.067462 0.0060674641
-5.0065584 6.1804175 0.0061804196
-5.1052551 6.2933731 0.006293375
-5.2039518 6.4063282 0.0064063305
-5.3026485 6.5192838 0.006519286
-5.4013453 6.6322393 0.0066322414
-5.5987391 6.85815 0.0068581523
-5.6974359 6.9711056 0.0069711078
-5.7961326 7.0840611 0.0070840633
-5.8948293 7.1970162 0.0071970187
-5.9935265 7.3099718 0.0073099742
-6.0922232 7.4229274 0.0074229296
-6.2896166 7.648838 0.0076488405
-2.99914 4.5767879 0.0045767892
-3.0882461 4.697453 0.0046974546
-3.1773522 4.8181181 0.00481812
-3.3555644 5.0594487 0.0050594504
-3.4446704 5.1801138 0.0051801158
-3.6228826 5.4214444 0.0054214462
-3.7119887 5.5421095 0.0055421116
-3.8010948 5.6627746 0.0056627765
-3.8902009 5.7834401 0.0057834419
-3.9793067 5.9041052 0.0059041074
-4.0684128 6.0247703 0.0060247723
-4.1575189 6.1454358 0.0061454377
-4.2466249 6.2661009 0.0062661031
-4.335731 6.386766 0.0063867681
-4.4248371 6.507431 0.0065074335
-4.5139432 6.6280966 0.0066280989
-4.6030493 6.7487617 0.0067487638
-4.6921554 6.8694267 0.0068694293
-4.7812614 6.9900923 0.0069900947
-4.8703675 7.1107574 0.0071107596
-4.9594736 7.2314224 0.007231425
-5.0485797 7.352088 0.00735209
-5.2267919 7.5934181 0.0075934208
-5.405004 7.8347487 0.0078347512
-5.4941101 7.9554138 0.0079554161
-5.5832162 8.0760794 0.008076082
-5.6723223 8.196744 0.0081967469
-2.6625874 4.858036 0.0048580375
-2.7418981 4.9853535 0.0049853553
-2.9005196 5.2399888 0.0052399905
-3.0591412 5.4946241 0.0054946262
-3.1384521 5.621942 0.0056219436
-3.2970736 5.8765774 0.0058765793
-3.3763843 6.0038948 0.0060038967
-3.4556952 6.1312122 0.0061312146
-3.5350058 6.2585301 0.0062585324
-3.6143167 6.3858476 0.0063858498
-3.6936274 6.5131655 0.0065131676
-3.7729383 6.6404829 0.0066404855
-3.8522489 6.7678008 0.0067678029
-3.9315598 6.8951182 0.0068951207
-4.0108705 7.0224361 0.0070224386
-4.0901814 7.1497536 0.007149756
-4.1694922 7.2770715 0.0072770738
-4.2488027 7.4043889 0.0074043917
-4.3281136 7.5317068 0.007531709
-4.4074244 7.6590242 0.0076590269
-4.4867353 7.7863421 0.0077863447
-4.5660458 7.9136596 0.0079136621
-4.6453567 8.0409775 0.0080409804
-4.7246675 8.1682949 0.0081682978
-4.803978 8.2956123 0.0082956152
-4.8832889 8.4229307 0.0084229335
-4.9625998 8.5502481 0.0085502509
-2.2407794 4.974143 0.004974145
-2.3098371 5.1073012 0.0051073027
-2.3788946 5.240459 0.0052404609
-2.4479523 5.3736167 0.0053736186
-2.5860674 5.6399326 0.0056399344
-2.7241824 5.9062486 0.0059062508
-2.8622975 6.1725645 0.0061725667
-2.9313552 6.3057222 0.0063057244
-3.0004127 6.4388804 0.0064388826
-3.0694704 6.5720382 0.0065720403
-3.1385279 6.7051964 0.0067051984
-3.2075856 6.8383541 0.0068383566
-3.276643 6.9715118 0.0069715143
-3.3457007 7.10467 0.0071046725
-3.4147582 7.2378278 0.0072378302
-3.4838157 7.370986 0.0073709884
-3.5528734 7.5041437 0.0075041461
-3.6219308 7.6373014 0.0076373043
-3.6909885 7.7704597 0.0077704624
-3.760046 7.9036174 0.0079036206
-3.8291037 8.0367756 0.0080367783
-3.9672189 8.303091 0.0083030937
-4.1053338 8.5694075 0.0085694101
-4.1743913 8.7025652 0.0087025678
-4.2434492 8.8357229 0.0088357264
-4.3125067 8.9688807 0.0089688841
-1.8827046 5.1998987 0.0051999004
-1.941025 5.3380966 0.0053380984
-1.9993455 5.4762945 0.0054762964
-2.0576661 5.6144929 0.0056144944
-2.1159863 5.7526908 0.0057526925
-2.2909479 6.167285 0.006167287
-2.3492682 6.3054829 0.006305485
-2.4075887 6.4436812 0.0064436831
-2.4659092 6.5818791 0.0065818815
-2.5242295 6.720077 0.0067200796
-2.58255 6.8582754 0.0068582776
-2.6408706 6.9964733 0.0069964756
-2.6991911 7.1346712 0.0071346737
-2.7575114 7.2728696 0.0072728717
-2.8158319 7.4110675 0.0074110702
-2.8741524 7.5492654 0.0075492682
-2.9324729 7.6874638 0.0076874662
-2.9907932 7.8256617 0.0078256642
-3.0491138 7.96386 0.0079638623
-3.1074343 8.1020575 0.0081020603
-3.1657548 8.2402563 0.0082402583
-3.2823956 8.5166521 0.0085166553
-3.3407161 8.65485 0.0086548533
-3.3990364 8.7930479 0.0087930514
-3.4573569 8.9312458 0.0089312494
-3.573998 9.2076426 0.0092076454
-1.4677746 5.2493 0.0052493019
-1.5150363 5.3916597 0.0053916615
-1.5622981 5.5340195 0.0055340212
-1.6568216 5.8187389 0.0058187409
-1.751345 6.1034589 0.0061034607
-1.7986068 6.2458186 0.0062458203
-1.8458686 6.3881783 0.0063881804
-1.8931303 6.5305381 0.0065305401
-1.940392 6.6728978 0.0066729002
-1.9876537 6.8152575 0.0068152598
-2.0349154 6.9576173 0.0069576195
-2.0821772 7.099977 0.0070999796
-2.1294389 7.2423368 0.0072423392
-2.1767008 7.3846965 0.0073846993
-2.2239625 7.5270567 0.0075270589
-2.2712243 7.6694164 0.0076694191
-2.318486 7.8117762 0.0078117787
-2.3657477 7.9541359 0.0079541383
-2.4130094 8.0964956 0.0080964984
-2.4602711 8.2388554 0.0082388585
-2.5075328 8.3812151 0.0083812177
-2.5547948 8.5235748 0.0085235778
-2.6493182 8.8082943 0.0088082971
-2.7911034 9.2353735 0.0092353765
-2.8383651 9.3777332 0.0093777366
-2.9801505 9.8048134 0.009804816
-1.1364565 5.5536647 0.0055536665
-1.1723151 5.6993151 0.0056993174
-1.2081738 5.8449659 0.0058449679
-1.3157496 6.281918 0.0062819202
-1.3516083 6.4275689 0.0064275712
-1.3874669 6.5732198 0.0065732221
-1.4233255 6.7188706 0.0067188726
-1.4591842 6.864521 0.0068645235
-1.4950428 7.0101719 0.0070101744
-1.5309014 7.1558228 0.0071558249
-1.5667601 7.3014736 0.0073014759
-1.6026187 7.447124 0.0074471268
-1.674336 7.7384257 0.0077384282
-1.7101946 7.8840766 0.0078840787
-1.7460532 8.029727 0.0080297301
-1.7819118 8.1753778 0.0081753805
-1.8177705 8.3210287 0.008321031
-1.8536291 8.4666796 0.0084666824
-1.8894877 8.6123304 0.0086123329
-1.9253464 8.7579803 0.0087579833
-2.0329223 9.1949329 0.0091949357
-2.1763568 9.7775364 0.0097775394
-2.2480741 10.068837 0.010068841
-0.75354183 5.6825614 0.0056825634
-0.77790171 5.8305702 0.005830572
-0.80226165 5.978579 0.005978581
-0.82662153 6.1265874 0.0061265896
-0.85098147 6.2745962 0.0062745982
-0.87534136 6.422605 0.0064226072
-0.89970124 6.5706134 0.0065706158
-0.92406118 6.7186222 0.0067186244
-0.94842106 6.866631 0.0068666334
-0.972781 7.0146399 0.007014642
-0.99714088 7.1626482 0.0071626506
-1.0215008 7.310657 0.0073106596
-1.0458608 7.4586658 0.0074586682
-1.0945805 7.754683 0.0077546858
-1.1189405 7.9026918 0.0079026949
-1.1433003 8.0507002 0.0080507034
-1.1676602 8.1987095 0.008198712
-1.1920202 8.3467178 0.0083467206
-1.2163801 8.4947262 0.0084947292
-1.2407399 8.6427355 0.0086427378
-1.2650999 8.7907438 0.0087907473
-1.2894598 8.9387531 0.0089387558
-1.3138198 9.0867615 0.0090867644
-1.3381796 9.2347698 0.009234773
-0.38701779 6.0796404 0.0060796426
-0.39959764 6.2291117 0.0062291138
-0.41217747 6.3785834 0.0063785855
-0.42475733 6.5280547 0.0065280572
-0.43733719 6.6775265 0.0066775284
-0.44991705 6.8269978 0.0068270001
-0.46249688 6.9764695 0.0069764717
-0.47507674 7.1259408 0.007125943
-0.48765659 7.2754121 0.0072754147
-0.50023645 7.4248838 0.0074248863
-0.51281631 7.5743551 0.007574358
-0.52539617 7.7238269 0.0077238292
-0.53797597 7.8732982 0.0078733005
-0.55055583 8.0227699 0.0080227721
-0.57571554 8.3217125 0.0083217155
-0.61345512 8.7701273 0.0087701296
-0.63861483 9.0690699 0.009069073
-0.66377449 9.3680134 0.0093680164
-0.70151407 9.8164272 0.0098164305
-0.73925364 10.264842 0.010264846
-0.75183344 10.414313 0.010414317
0.040826667 6.155458 0.0061554601
0.039811116 6.4554558 0.0064554582
0.03930334 6.6054549 0.0066054575
0.038795564 6.7554541 0.0067554563
0.038287789 6.9054532 0.0069054556
0.037780013 7.0554523 0.0070554544
0.037272237 7.2054515 0.0072054537
0.036764462 7.3554506 0.007355453
0.036256682 7.5054493 0.0075054518
0.035748906 7.6554484 0.0076554511
0.035241131 7.8054476 0.0078054504
0.034733355 7.9554467 0.0079554496
0.034225579 8.1054459 0.0081054484
0.033210028 8.4054441 0.008405447
0.032702252 8.5554428 0.0085554458
0.032194477 8.7054424 0.0087054446
0.031686701 8.8554411 0.0088554444
0.031178925 9.0054398 0.0090054432
0.030671149 9.1554394 0.009155442
0.030163374 9.305438 0.0093054418
0.029655598 9.4554377 0.0094554406
0.029147821 9.6054363 0.0096054394
0.027116718 10.205433 0.010205436
0.46472746 6.1738086 0.0061738105
0.48780513 6.4729195 0.0064729215
0.49934399 6.6224747 0.006622477
0.52242166 6.9215856 0.006921588
0.53396046 7.0711412 0.0070711435
0.54549932 7.2206964 0.007220699
0.55703813 7.3702521 0.0073702545
0.56857699 7.5198073 0.00751981
0.58011585 7.669363 0.0076693655
0.59165466 7.8189182 0.0078189215
0.60319352 7.9684739 0.007968477
0.61473233 8.1180296 0.0081180325
0.62627119 8.2675848 0.008267588
0.64934886 8.5666952 0.0085666981
0.66088766 8.7162514 0.0087162536
0.68396533 9.0153618 0.0090153646
0.69550419 9.1649179 0.0091649201
0.70704305 9.3144732 0.0093144756
0.73012072 9.6135836 0.0096135866
0.74165952 9.7631397 0.0097631421
0.75319839 9.9126949 0.0099126976
0.77627605 10.211805 0.010211809
0.91936779 6.3306327 0.0063306349
0.94308096 6.4787464 0.0064787487
0.96679413 6.6268601 0.0066268621
0.9905073 6.7749739 0.0067749759
1.0142205 6.9230876 0.0069230897
1.0379337 7.0712013 0.0070712036
1.0616468 7.2193146 0.0072193174
1.0853601 7.3674283 0.0073674307
1.1090732 7.515542 0.0075155445
1.1327864 7.6636558 0.0076636584
1.1564995 7.8117695 0.0078117722
1.1802127 7.9598832 0.0079598855
1.2039258 8.1079969 0.0081079993
1.2276391 8.2561102 0.0082561132
1.2513522 8.4042244 0.008404227
1.2750654 8.5523376 0.0085523408
1.2987785 8.7004519 0.0087004546
1.3224918 8.8485651 0.0088485684
1.3462049 8.9966793 0.0089966822
1.369918 9.1447926 0.0091447961
1.4173443 9.44102 0.0094410237
1.4410576 9.5891342 0.0095891366
1.4647707 9.7372475 0.0097372504
1.3197113 6.0961614 0.0060961633
1.3555335 6.2418213 0.0062418231
1.3913556 6.3874807 0.0063874829
1.4629998 6.6788001 0.0066788024
1.498822 6.82446 0.0068244622
1.5346441 6.9701195 0.006970122
1.5704663 7.1157794 0.0071157818
1.6062884 7.2614393 0.0072614416
1.6421105 7.4070988 0.0074071013
1.6779326 7.5527587 0.0075527611
1.7137548 7.6984181 0.0076984209
1.7495769 7.8440781 0.0078440802
1.7853991 7.9897375 0.00798974
1.8212212 8.135397 0.0081353998
1.8570433 8.2810574 0.0082810596
1.8928654 8.4267168 0.0084267193
1.9286876 8.5723763 0.0085723791
2.0003319 8.8636961 0.0088636987
2.036154 9.0093555 0.0090093585
2.0719762 9.155015 0.0091550183
2.2152646 9.7376547 0.0097376574
2.2510867 9.8833141 0.0098833172
2.2869089 10.028974 0.010028977
1.8776662 6.4036102 0.006403612
1.9730291 6.6880498 0.0066880519
2.0207105 6.8302693 0.0068302718
2.068392 6.9724889 0.0069724913
2.1160734 7.1147089 0.0071147112
2.1637549 7.2569284 0.0072569312
2.2114363 7.3991485 0.0073991506
2.3067992 7.683588 0.0076835905
2.3544807 7.8258076 0.0078258105
2.4021621 7.9680276 0.0079680299
2.5452065 8.3946867 0.0083946893
2.5928879 8.5369062 0.0085369097
2.7359324 8.9635658 0.0089635691
2.7836139 9.1057854 0.0091057885
2.9266582 9.532445 0.0095324479
2.0752916 5.6864481 0.0056864498
2.193507 5.9621744 0.0059621762
2.2526147 6.1000376 0.0061000399
2.4299376 6.5136275 0.0065136296
2.4890454 6.6514907 0.0066514928
2.5481529 6.7893538 0.006789356
2.6072607 6.927217 0.0069272192
2.6663682 7.0650802 0.0070650824
2.725476 7.2029433 0.0072029456
2.8436913 7.4786696 0.0074786721
2.9027989 7.6165328 0.0076165358
2.9619067 7.7543964 0.007754399
3.0210142 7.8922596 0.0078922622
3.1392295 8.1679859 0.0081679886
3.1983373 8.3058491 0.0083058523
3.2574449 8.4437122 0.0084437151
3.3165526 8.5815754 0.0085815787
3.434768 8.8573017 0.0088573052
3.5529833 9.133028 0.0091330316
2.5793185 5.7777958 0.0057777977
2.7189643 6.0433121 0.006043314
3.068079 6.7071033 0.0067071053
3.137902 6.8398614 0.0068398635
3.2077248 6.9726195 0.0069726217
3.2775478 7.1053777 0.0071053803
3.3473709 7.2381358 0.0072381385
3.4171937 7.370894 0.0073708966
3.4870167 7.5036521 0.0075036548
3.5568397 7.6364107 0.007636413
3.6266625 7.7691689 0.0077691711
3.6964855 7.901927 0.0079019293
3.9059544 8.3002014 0.0083002038
4.1154232 8.6984758 0.0086984793
4.324892 9.0967503 0.0090967538
4.3947148 9.2295084 0.009229512
4.5343609 9.4950256 0.0094950283
2.8628435 5.4423089 0.0054423106
3.0226831 5.6961813 0.0056961831
3.1026032 5.8231173 0.0058231195
3.182523 5.9500537 0.0059500556
3.2624428 6.0769897 0.006076992
3.4222827 6.330862 0.0063308645
3.5022025 6.4577985 0.0064578005
3.5821226 6.5847344 0.006584737
3.6620424 6.7116709 0.006711673
3.7419622 6.8386068 0.006838609
3.8218822 6.9655433 0.0069655455
3.9018021 7.0924792 0.0070924815
3.9817219 7.2194157 0.007219418
4.0616417 7.3463516 0.007346354
4.1415615 7.4732881 0.0074732904
4.2214818 7.600224 0.0076002264
4.3014016 7.7271605 0.0077271629
4.3813214 7.8540964 0.0078540994
4.5411611 8.1079683 0.0081079714
4.7010012 8.3618412 0.0083618443
4.780921 8.4887772 0.0084887799
5.1805205 9.1234579 0.0091234613
3.3834274 5.4508991 0.0054509011
3.4730787 5.5711598 0.0055711619
3.5627301 5.6914206 0.0056914221
3.6523817 5.8116808 0.0058116829
3.8316846 6.0522022 0.0060522039
4.0109873 6.2927232 0.0062927254
4.1006389 6.4129839 0.0064129857
4.1902905 6.5332441 0.0065332465
4.279942 6.6535048 0.0066535072
4.3695931 6.7737656 0.0067737675
4.4592447 6.8940258 0.0068940283
4.5488963 7.0142865 0.007014289
4.6385474 7.1345472 0.0071345493
4.8178506 7.3750682 0.0073750708
4.9075022 7.4953289 0.0074953311
4.9971533 7.6155891 0.0076155919
5.0868049 7.7358499 0.0077358526
5.2661076 7.9763713 0.0079763737
5.3557591 8.096632 0.0080966344
5.6247134 8.4574137 0.0084574157
5.714365 8.5776739 0.0085776765
3.8247802 5.3476686 0.0053476705
4.0223737 5.5734048 0.0055734068
4.12117 5.6862731 0.0056862747
4.4175601 6.0248771 0.0060248789
4.5163569 6.1377454 0.0061377473
4.6151538 6.2506132 0.0062506152
4.7139502 6.3634815 0.0063634836
4.9115438 6.5892177 0.0065892199
5.0103402 6.7020855 0.0067020878
5.1091371 6.8149538 0.0068149557
5.2079339 6.9278216 0.0069278241
5.3067303 7.0406899 0.007040692
5.4055271 7.1535578 0.0071535604
5.504324 7.2664261 0.0072664283
5.6031203 7.3792939 0.0073792962
5.7019172 7.4921622 0.0074921646
5.800714 7.6050301 0.0076050325
5.9983072 7.8307662 0.0078307688
6.0971041 7.9436345 0.0079436367
6.1959004 8.0565023 0.0080565047
6.2946973 8.1693707 0.0081693735
4.1557446 5.0963802 0.005096382
4.2631321 5.201108 0.0052011097
4.3705196 5.3058357 0.0053058378
4.4779072 5.4105635 0.0054105655
4.6926823 5.620019 0.0056200209
5.0148449 5.9342027 0.0059342044
5.1222324 6.0389304 0.0060389321
5.22962 6.1436582 0.0061436603
5.3370075 6.2483859 0.006248388
5.4443951 6.3531137 0.0063531157
5.5517826 6.4578414 0.0064578434
5.6591702 6.5625691 0.0065625715
5.7665577 6.6672969 0.0066672992
5.8739452 6.7720246 0.0067720269
5.9813328 6.8767524 0.0068767546
6.0887203 6.9814801 0.0069814827
6.1961079 7.0862079 0.0070862104
6.3034954 7.1909356 0.0071909381
6.4108829 7.2956634 0.0072956658
6.5182705 7.4003911 0.007400394
6.625658 7.5051188 0.0075051216
6.8404331 7.7145748 0.007714577
6.9478207 7.8193026 0.0078193052
7.1625957 8.028758 0.0080287606
7.3773708 8.2382135 0.0082382159
7.6995335 8.5523968 0.0085523995
5.0399666 5.2923331 0.0052923351
5.2706404 5.4841394 0.0054841414
5.3859773 5.5800428 0.0055800448
5.5013137 5.6759458 0.0056759478
5.7319875 5.8677526 0.0058677541
5.8473239 5.9636555 0.0059636575
5.9626608 6.0595589 0.0060595609
6.0779977 6.1554618 0.0061554639
6.1933346 6.2513652 0.0062513673
6.308671 6.3472681 0.0063472702
6.4240079 6.4431715 0.0064431736
6.5393448 6.5390744 0.006539077
6.7700181 6.7308812 0.0067308834
6.885355 6.8267841 0.0068267863
7.0006919 6.9226875 0.0069226897
7.1160283 7.0185905 0.0070185931
7.2313652 7.1144938 0.0071144961
7.462039 7.3063002 0.0073063024
8.038723 7.7858162 0.0077858185
8.8460798 8.4571381 0.008457141
6.0879798 5.4611716 0.0054611731
6.4556184 5.7206745 0.0057206764
6.5781646 5.8071752 0.0058071772
6.7007108 5.8936763 0.0058936784
6.823257 5.9801774 0.0059801792
6.9458032 6.066678 0.0060666804
7.0683494 6.1531792 0.0061531812
7.1908956 6.2396803 0.0062396824
7.3134418 6.3261809 0.0063261832
7.4359879 6.4126821 0.0064126845
7.5585341 6.4991832 0.0064991852
7.6810803 6.5856838 0.006585686
7.8036265 6.6721849 0.0066721872
8.0487194 6.8451867 0.0068451893
8.1712656 6.9316878 0.00693169
8.416358 7.1046896 0.007104692
8.5389042 7.1911907 0.0071911933
8.7839966 7.3641925 0.0073641953
9.029089 7.5371947 0.0075371973
9.64182 7.9696994 0.0079697017
6.4050035 5.0274758 0.0050274772
6.5339785 5.1040621 0.0051040635
6.7919283 5.2572346 0.0052572363
7.0498781 5.4104075 0.0054104095
7.178853 5.4869938 0.0054869959
7.4368029 5.6401668 0.0056401687
7.5657778 5.716753 0.0057167551
7.8237276 5.8699255 0.0058699278
7.952702 5.9465122 0.0059465142
8.0816774 6.0230985 0.0060231006
8.3396273 6.176271 0.0061762733
8.4686022 6.2528577 0.0062528597
8.5975771 6.3294439 0.0063294461
8.726552 6.4060302 0.0064060325
8.8555269 6.4826164 0.0064826189
9.1134768 6.6357894 0.0066357916
9.3714256 6.7889619 0.0067889644
9.5004005 6.8655486 0.0068655508
9.7583504 7.0187211 0.0070187235
9.8873253 7.0953074 0.0070953099
10.27425 7.3250666 0.007325069
10.5322 7.4782395 0.0074782418
11.177074 7.8611712 0.0078611737
11.306049 7.9377575 0.0079377601
11.435024 8.0143442 0.0080143465
11.563999 8.09093 0.0080909329
5.6050696 4.0435233 0.0040435246
7.2201762 4.8381495 0.0048381509
7.3547683 4.9043679 0.0049043698
7.4893608 4.9705868 0.0049705887
7.6239529 5.0368056 0.0050368076
7.7585449 5.1030245 0.0051030265
7.8931375 5.1692433 0.0051692454
8.02773 5.2354622 0.0052354638
8.162322 5.301681 0.0053016827
8.2969141 5.3678999 0.0053679016
8.4315062 5.4341187 0.0054341205
8.5660982 5.5003376 0.0055003394
8.7006903 5.5665565 0.0055665583
8.8352823 5.6327753 0.0056327772
8.9698753 5.6989942 0.0056989961
9.2390594 5.8314319 0.0058314339
9.6428356 6.0300884 0.0060300902
9.7774286 6.0963073 0.0060963091
9.9120207 6.1625261 0.0061625279
10.046613 6.228745 0.0062287468
10.181205 6.2949638 0.0062949657
10.315797 6.3611822 0.0063611846
10.450389 6.4274011 0.0064274035
10.584982 6.4936199 0.0064936224
10.719574 6.5598388 0.0065598413
10.854166 6.6260576 0.0066260598
10.988758 6.6922765 0.0066922787
11.12335 6.7584953 0.0067584976
11.392534 6.890933 0.0068909354
11.661719 7.0233707 0.0070233732
11.930903 7.1558084 0.0071558109
8.4541025 4.7086878 0.0047086892
8.5934582 4.7641835 0.0047641848
9.011528 4.9306703 0.0049306722
9.1508846 4.986166 0.0049861679
9.2902412 5.0416617 0.0050416635
9.4295979 5.0971575 0.0050971592
9.5689535 5.1526532 0.0051526548
9.7083101 5.208149 0.0052081505
9.8476667 5.2636447 0.0052636461
9.9870234 5.3191404 0.0053191418
10.12638 5.3746357 0.0053746379
10.265737 5.4301314 0.0054301335
10.405092 5.4856272 0.0054856292
10.544449 5.5411229 0.0055411248
10.683805 5.5966187 0.0055966205
10.962519 5.7076101 0.0057076118
11.101875 5.7631059 0.0057631074
11.380588 5.8740969 0.0058740987
11.519944 5.9295926 0.0059295949
11.659301 5.9850883 0.0059850905
11.798657 6.0405841 0.0060405862
11.938014 6.0960798 0.0060960818
12.356083 6.2625666 0.0062625688
9.4123163 4.3253345 0.0043253358
9.6987982 4.4143763 0.0044143777
9.8420382 4.4588966 0.0044588982
9.9852791 4.5034175 0.0045034192
10.12852 4.5479383 0.0045479401
10.271761 4.5924592 0.004592461
10.415001 4.6369801 0.0046369815
10.558242 4.6815009 0.0046815025
10.701483 4.7260218 0.0047260234
10.844724 4.7705426 0.0047705444
10.987964 4.8150635 0.0048150648
11.131205 4.8595843 0.0048595858
11.560926 4.9931464 0.0049931481
11.704167 5.0376673 0.0050376691
11.847408 5.0821881 0.00508219
11.990649 5.126709 0.0051267105
12.133889 5.1712298 0.0051712315
12.27713 5.2157507 0.0052157524
12.420371 5.2602715 0.0052602733
12.563612 5.3047924 0.0053047938
12.706852 5.3493133 0.0053493148
12.993334 5.4383545 0.0054383567
4.0548468 2.3813796 0.0023813802
10.490202 3.8463714 0.0038463727
10.63646 3.8796668 0.0038796682
10.928976 3.9462574 0.0039462587
11.075234 3.9795525 0.0039795539
11.221493 4.0128479 0.0040128492
11.36775 4.0461431 0.0040461444
11.514009 4.0794382 0.0040794397
11.660267 4.1127338 0.0041127349
11.806524 4.146029 0.0041460302
12.537815 4.3125052 0.0043125069
12.684073 4.3458004 0.0043458021
12.830331 4.379096 0.0043790974
12.976589 4.4123912 0.0044123926
13.122848 4.4456863 0.0044456879
13.269105 4.4789815 0.0044789831
13.415363 4.5122771 0.0045122784
14.000396 4.6454582 0.0046454598
15.170461 4.9118204 0.0049118218
5.1595163 2.2762113 0.002276212
11.244824 3.1658866 0.0031658877
11.393247 3.1875858 0.003187587
11.690091 3.2309847 0.0032309857
12.580625 3.361181 0.0033611823
12.729047 3.3828804 0.0033828816
12.877468 3.4045799 0.003404581
13.02589 3.4262793 0.0034262806
13.174313 3.4479787 0.0034479799
13.322735 3.4696782 0.0034696793
13.619579 3.513077 0.0035130782
14.064846 3.5781751 0.0035781763
12.687321 2.438617 0.0024386179
12.836982 2.4486852 0.0024486859
12.986644 2.4587533 0.0024587542
13.136306 2.4688215 0.0024688223
13.435629 2.4889579 0.0024889586
12.568614 1.5225605 0.001522561
12.718606 1.5210363 0.0015210367
12.868598 1.5195121 0.0015195126
13.018591 1.5179878 0.0015179884
13.168583 1.5164636 0.0015164642
13.318575 1.5149395 0.0015149401
3.7070343 1.3871344 0.0013871349
12.523202 0.61403394 0.00061403413
12.672628 0.60093051 0.00060093071
12.822055 0.58782715 0.00058782729
12.971482 0.57472372 0.00057472393
12.405401 -0.29302564 -0.00029302575
12.553344 -0.31778616 -0.00031778627
12.701285 -0.34254667 -0.00034254679
12.849228 -0.36730719 -0.00036730731
13.293055 -0.44158873 -0.00044158887
12.063097 -1.1713256 -0.001171326
12.208618 -1.2077067 -0.0012077071
12.354139 -1.2440878 -0.0012440882
12.49966 -1.2804688 -0.0012804692
12.645182 -1.3168499 -0.0013168503
12.790703 -1.353231 -0.0013532315
12.936224 -1.3896121 -0.0013896126
13.081745 -1.4259932 -0.0014259936
11.935863 -2.100975 -0.0021009757
12.07804 -2.1487806 -0.0021487814
12.220219 -2.1965864 -0.0021965869
12.362397 -2.2443919 -0.0022443926
12.646753 -2.3400033 -0.0023400041
11.305237 -2.8680482 -0.0028680493
11.85662 -3.1046433 -0.0031046444
11.994466 -3.1637919 -0.0031637931
12.132311 -3.2229407 -0.0032229419
12.270157 -3.2820895 -0.0032820906
12.408002 -3.3412383 -0.0033412394
12.683694 -3.4595358 -0.0034595369
6.7696266 -1.5392358 -0.0015392364
10.877719 -3.7177837 -0.0037177848
11.540315 -4.0691624 -0.0040691635
11.805353 -4.2097139 -0.0042097149
11.937872 -4.2799897 -0.0042799911
12.070391 -4.350265 -0.0043502669
12.20291 -4.4205408 -0.0044205426
12.467949 -4.5610924 -0.0045610941
18.033751 -7.5126734 -0.0075126756
3.1781592 0.0805014 8.0501428e-05
11.383769 -5.1854687 -0.0051854705
11.510009 -5.2664838 -0.0052664853
11.63625 -5.3474984 -0.0053475006
11.762489 -5.4285135 -0.0054285154
11.888729 -5.5095286 -0.0055095302
12.01497 -5.5905433 -0.005590545
12.14121 -5.6715584 -0.0056715603
12.39369 -5.8335881 -0.0058335899
12.646171 -5.9956179 -0.00599562
12.77241 -6.076633 -0.0060766349
14.918493 -7.4538865 -0.0074538891
15.044733 -7.5349016 -0.0075349039
11.210038 -6.4322696 -0.0064322716
11.566674 -6.7066965 -0.0067066988
11.685554 -6.7981725 -0.0067981747
11.804432 -6.889648 -0.0068896501
11.923311 -6.9811239 -0.006981126
12.04219 -7.0725994 -0.0070726019
12.161069 -7.1640754 -0.0071640778
12.279947 -7.2555509 -0.0072555533
9.8728056 -6.8085093 -0.0068085114
10.093562 -7.0116501 -0.0070116525
10.203941 -7.1132207 -0.007113223
10.31432 -7.2147913 -0.0072147935
10.424698 -7.3163614 -0.007316364
10.645455 -7.5195026 -0.007519505
10.976591 -7.824214 -0.007824217
11.086969 -7.9257846 -0.007925787
11.307727 -8.1289253 -0.008128928
11.418105 -8.2304955 -0.008230499
11.528483 -8.3320665 -0.008332069
11.638863 -8.4336367 -0.00843364
11.749241 -8.5352068 -0.00853521
11.859619 -8.6367779 -0.008636781
2.3861897 -0.25579429 -0.00025579435
5.9166512 -4.1414509 -0.0041414523
7.8331876 -6.2508073 -0.0062508094
7.9340577 -6.3618259 -0.0063618282
8.1357985 -6.5838637 -0.0065838657
8.2366686 -6.6948824 -0.0066948845
8.3375387 -6.8059011 -0.0068059033
8.4384098 -6.9169197 -0.0069169221
8.5392799 -7.0279384 -0.0070279408
8.6401501 -7.1389575 -0.0071389596
8.7410202 -7.2499762 -0.0072499784
8.8418903 -7.3609948 -0.0073609971
8.9427614 -7.4720135 -0.0074720159
10.657557 -9.3593321 -0.0093593355
11.363648 -10.136464 -0.010136467
11.46452 -10.247482 -0.010247486
11.56539 -10.358501 -0.010358505
11.66626 -10.46952 -0.010469523
11.76713 -10.580539 -0.010580542
5.3552451 -4.5639629 -0.0045639644
6.7180314 -6.354301 -0.0063543031
6.8088837 -6.4736567 -0.0064736591
6.8997364 -6.5930128 -0.006593015
6.9905887 -6.7123685 -0.006712371
7.0814409 -6.8317246 -0.0068317265
7.1722937 -6.9510803 -0.0069510825
7.2631459 -7.070436 -0.0070704385
7.3539982 -7.1897922 -0.0071897944
10.988095 -11.964026 -0.011964031
11.351505 -12.44145 -0.012441454
5.5001702 -6.0637393 -0.0060637412
5.5806828 -6.1903005 -0.0061903023
5.6611953 -6.3168616 -0.0063168635
5.7417073 -6.4434228 -0.0064434251
5.8222198 -6.569984 -0.0065699862
5.9027324 -6.6965451 -0.0066965474
5.9832449 -6.8231063 -0.0068231085
6.1442695 -7.0762286 -0.0070762313
6.224782 -7.2027903 -0.0072027924
4.1636777 -5.2300696 -0.005230071
4.5808225 -6.0275593 -0.0060275611
4.6503468 -6.1604738 -0.0061604762
4.7198706 -6.2933888 -0.0062933909
4.7893949 -6.4263039 -0.006426306
4.8589191 -6.5592189 -0.0065592211
4.928443 -6.6921339 -0.0066921362
4.9979672 -6.8250484 -0.0068250508
5.0674915 -6.9579635 -0.0069579659
5.2065396 -7.2237935 -0.0072237961
3.7321041 -6.0483174 -0.0060483194
3.789892 -6.186739 -0.0061867409
3.8476799 -6.3251605 -0.0063251625
3.9054677 -6.463582 -0.0064635845
3.9632556 -6.6020036 -0.006602006
4.0210433 -6.7404256 -0.0067404276
4.1366191 -7.0172687 -0.0070172711
2.7987027 -5.6992359 -0.0056992378
2.8894277 -5.9851885 -0.0059851902
2.9347901 -6.1281648 -0.0061281668
2.9801526 -6.2711411 -0.006271143
3.0255151 -6.4141173 -0.0064141196
3.0708776 -6.5570936 -0.0065570958
3.11624 -6.7000699 -0.006700072
3.1616025 -6.8430462 -0.0068430486
2.0817204 -5.8451891 -0.005845191
2.1143701 -5.9915924 -0.0059915944
2.1470196 -6.1379962 -0.0061379983
2.1796691 -6.2843995 -0.0062844018
2.2123189 -6.4308028 -0.0064308052
2.2449684 -6.5772066 -0.0065772086
0.52783895 0.32469323 0.00032469333
1.1655359 -4.4327555 -0.0044327569
1.3648162 -5.9194584 -0.0059194602
1.3847442 -6.0681286 -0.006068131
1.4046723 -6.2167988 -0.0062168012
1.4246002 -6.3654695 -0.0063654715
1.4445283 -6.5141397 -0.0065141418
0.35757634 0.35901359 0.00035901371
0.69110525 -5.9321485 -0.0059321504
0.69904637 -6.0819378 -0.0060819401
0.70698756 -6.2317276 -0.0062317294
0.72286987 -6.5313067 -0.0065313089
0.033925027 -5.8862548 -0.0058862567
0.030170213 -6.0362077 -0.0060362099
0.026415402 -6.1861606 -0.0061861626
0.018905779 -6.4860663 -0.0064860685
-0.42468187 -3.8427377 -0.0038427389
-0.62619257 -5.7822967 -0.0057822987
-0.64169341 -5.9314938 -0.0059314957
-0.65719426 -6.0806904 -0.0060806926
-0.67269504 -6.2298875 -0.0062298896
-1.2793902 -5.6357641 -0.0056357658
-1.3065512 -5.7832842 -0.0057832864
-1.3337121 -5.9308047 -0.0059308065
-1.3608731 -6.0783248 -0.0060783271
-1.9336871 -5.4347587 -0.0054347604
-1.9724646 -5.5796595 -0.0055796611
-2.0112419 -5.7245603 -0.0057245623
-2.0500195 -5.8694615 -0.0058694631
-2.0887969 -6.0143623 -0.0060143643
-2.1275744 -6.1592631 -0.0061592655
-2.1663518 -6.3041644 -0.0063041663
-2.2826841 -6.7388673 -0.0067388695
-2.5691726 -5.1870322 -0.0051870341
-2.6192269 -5.3284345 -0.0053284359
-2.6692812 -5.4698362 -0.0054698382
-2.7193356 -5.6112385 -0.0056112404
-2.7693899 -5.7526407 -0.0057526426
-2.8194442 -5.8940425 -0.0058940444
-2.9696071 -6.3182487 -0.0063182507
-3.0196614 -6.459651 -0.0064596529
-3.069716 -6.6010528 -0.0066010552
-3.1197703 -6.742455 -0.0067424574
-3.1698246 -6.8838568 -0.0068838592
-3.2198789 -7.025259 -0.0070252614
-3.2699332 -7.1666613 -0.0071666637
-3.3199875 -7.308063 -0.0073080654
-3.3700418 -7.4494653 -0.0074494677
-3.4200962 -7.5908675 -0.0075908699
-3.4701505 -7.7322693 -0.0077322721
-3.5702593 -8.0150738 -0.0080150766
-2.5151994 -3.3742318 -0.0033742329
-2.6373012 -3.6482592 -0.0036482604
-3.1867592 -4.8813829 -0.0048813848
-3.3699119 -5.2924242 -0.0052924263
-3.4309628 -5.4294381 -0.0054294402
-3.4920137 -5.566452 -0.0055664536
-3.5530643 -5.7034655 -0.0057034674
-3.6141152 -5.8404794 -0.0058404813
-3.6751661 -5.9774933 -0.0059774951
-3.736217 -6.1145067 -0.006114509
-3.7972679 -6.2515206 -0.0062515228
-3.8583188 -6.3885345 -0.0063885367
-3.9193697 -6.525548 -0.0065255505
-3.9804206 -6.6625619 -0.0066625644
-3.7783518 -4.5270653 -0.0045270664
-3.9930906 -4.922523 -0.004922525
-4.0646701 -5.0543427 -0.0050543444
-4.1362495 -5.186162 -0.0051861638
-4.2078295 -5.3179812 -0.0053179832
-4.2794089 -5.4498005 -0.0054498026
-4.3509884 -5.5816202 -0.005581622
-4.4225683 -5.7134395 -0.0057134414
-4.7550273 -4.7613077 -0.0047613094
-4.9184165 -5.0129108 -0.0050129122
-5.0001111 -5.1387119 -0.0051387139
-5.0818057 -5.2645135 -0.0052645151
-5.1635003 -5.3903146 -0.0053903167
-5.2451949 -5.5161161 -0.0055161179
-5.326889 -5.6419172 -0.0056419196
-5.7135997 -4.7546024 -0.0047546038
-5.8049846 -4.8735509 -0.0048735528
-5.8963695 -4.9924994 -0.0049925013
-5.9877543 -5.1114483 -0.0051114499
-6.0791397 -5.2303967 -0.0052303984
-6.1705246 -5.3493452 -0.0053493474
-6.2619095 -5.4682941 -0.0054682959
-6.5047283 -4.4279704 -0.0044279718
-6.6051707 -4.5393763 -0.0045393775
-6.7056136 -4.6507821 -0.0046507837
-6.806056 -4.762188 -0.0047621895
-6.9064989 -4.8735938 -0.0048735952
-7.0069413 -4.9849997 -0.0049850014
-7.1073842 -5.0964055 -0.0050964071
-7.2078266 -5.2078114 -0.0052078133
-7.7199535 -4.4329839 -0.0044329856
-7.8287916 -4.5362039 -0.0045362054
-7.9376292 -4.6394234 -0.0046394248
-8.0464668 -4.7426434 -0.0047426447
-8.1553049 -4.8458629 -0.0048458646
-8.264143 -4.9490829 -0.0049490845
-8.3729811 -5.0523024 -0.0050523039
-8.6994944 -5.3619614 -0.0053619635
-8.9865589 -4.2904515 -0.0042904527
-9.219759 -4.4791775 -0.0044791792
-9.336359 -4.5735407 -0.0045735422
-9.4529591 -4.6679039 -0.0046679056
-9.5695591 -4.7622671 -0.0047622686
-9.6861591 -4.8566303 -0.0048566321
-10.035959 -5.13972 -0.0051397216
-10.152559 -5.2340832 -0.0052340846
-10.269159 -5.3284464 -0.005328448
-10.385759 -5.4228096 -0.005422811
-10.774323 -4.3327832 -0.004332785
-10.897937 -4.4177523 -0.0044177538
-11.02155 -4.5027208 -0.0045027225
-11.145164 -4.5876899 -0.0045876913
-11.268778 -4.6726584 -0.00467266
-11.392391 -4.7576275 -0.0047576292
-11.516005 -4.8425961 -0.004842598
-11.589173 -3.5394642 -0.0035394654
-12.49833 -4.0647593 -0.0040647606
-12.628209 -4.139801 -0.0041398024
-12.758089 -4.2148433 -0.0042148447
-12.887968 -4.2898855 -0.0042898869
-13.017848 -4.3649278 -0.0043649292
-13.147727 -4.4399695 -0.0044399714
-13.277607 -4.5150118 -0.0045150132
-13.537365 -4.6650963 -0.0046650977
-13.667245 -4.7401381 -0.0047401399
-14.779931 -3.8399923 -0.0038399934
-15.050462 -3.9696574 -0.0039696586
-15.185727 -4.0344901 -0.0040344913
-15.320992 -4.0993223 -0.0040993239
-15.456258 -4.164155 -0.0041641565
-15.591523 -4.2289877 -0.0042289891
-15.862054 -4.3586531 -0.0043586544
-15.997319 -4.4234853 -0.004423487
-17.524437 -3.4556072 -0.0034556082
-17.664314 -3.5097773 -0.0035097785
-17.804192 -3.5639477 -0.0035639489
-17.944067 -3.618118 -0.0036181193
-18.083944 -3.6722884 -0.0036722897
-18.363699 -3.7806292 -0.0037806304
-20.1821 -4.4848437 -0.0044848453
-20.321976 -4.5390139 -0.0045390157
-20.461853 -4.5931845 -0.0045931861
-20.60173 -4.6473546 -0.0046473565
-20.741608 -4.7015252 -0.0047015268
-20.881485 -4.7556953 -0.0047556972
-21.161238 -4.8640361 -0.004864038
-21.301115 -4.9182067 -0.0049182083
-21.157137 -2.9436157 -0.0029436168
-9.3999462 2.2968836 0.0022968845
-1.0799066 3.6114712 0.0036114724
-28.787373 2.0756257 0.0020756263
-1.0709064 3.7846751 0.0037846763
-29.410339 4.5586748 0.0045586764
